ply
format ascii 1.0
comment VCGLIB generated
element vertex 282
property float x
property float y
property float z
property float nx
property float ny
property float nz
property uchar red
property uchar green
property uchar blue
property uchar alpha
element face 0
property list uchar int vertex_indices
end_header
-362.7415 295.2135 -435.0836 0 0 0 0 255 0 255 
-362.5534 294.3492 -435.02 0 0 0 0 255 0 255 
-362.4521 293.4974 -435.0118 0 0 0 0 255 0 255 
-362.3804 292.5958 -434.8726 0 0 0 0 255 0 255 
-362.2755 291.7503 -434.8807 0 0 0 0 255 0 255 
-362.0838 290.8922 -434.8334 0 0 0 0 255 0 255 
-361.8835 289.1845 -434.804 0 0 0 0 255 0 255 
-361.5272 286.5585 -434.5673 0 0 0 0 255 0 255 
-361.239 283.9762 -434.4678 0 0 0 0 255 0 255 
-360.8568 281.3936 -434.3456 0 0 0 0 255 0 255 
-360.5686 278.8114 -434.2461 0 0 0 0 255 0 255 
-360.367 276.2419 -434.2017 0 0 0 0 255 0 255 
-359.9885 273.653 -434.0633 0 0 0 0 255 0 255 
-359.5473 269.926 -433.9146 0 0 0 0 255 0 255 
-359.215 266.1744 -433.7231 0 0 0 0 255 0 255 
-358.8641 262.454 -433.6133 0 0 0 0 255 0 255 
-358.3215 258.739 -433.4746 0 0 0 0 255 0 255 
-357.9742 255.0125 -433.3484 0 0 0 0 255 0 255 
-357.5552 251.2482 -433.102 0 0 0 0 255 0 255 
-357.1287 247.4204 -432.8701 0 0 0 0 255 0 255 
-356.776 243.5945 -432.7414 0 0 0 0 255 0 255 
-356.5207 239.7632 -432.6188 0 0 0 0 255 0 255 
-356.0888 235.912 -432.4026 0 0 0 0 255 0 255 
-355.7139 232.1238 -432.3714 0 0 0 0 255 0 255 
-355.3575 228.3046 -432.2589 0 0 0 0 255 0 255 
-355.0227 224.3585 -432.0282 0 0 0 0 255 0 255 
-354.6801 220.3352 -431.8094 0 0 0 0 255 0 255 
-354.3266 216.3308 -431.6395 0 0 0 0 255 0 255 
-353.9621 212.345 -431.5181 0 0 0 0 255 0 255 
-353.5221 208.3274 -431.2933 0 0 0 0 255 0 255 
-353.1576 204.3418 -431.1719 0 0 0 0 255 0 255 
-352.8047 200.3169 -431.0331 0 0 0 0 255 0 255 
-352.4404 195.9725 -430.8123 0 0 0 0 255 0 255 
-352.0617 191.653 -430.6564 0 0 0 0 255 0 255 
-351.6794 187.3396 -430.5166 0 0 0 0 255 0 255 
-351.3006 183.0201 -430.3606 0 0 0 0 255 0 255 
-350.9292 178.6882 -430.1722 0 0 0 0 255 0 255 
-350.4781 174.508 -430.0619 0 0 0 0 255 0 255 
-350.1848 170.7667 -429.8997 0 0 0 0 255 0 255 
-349.9888 167.0207 -429.7436 0 0 0 0 255 0 255 
-349.6881 163.2917 -429.6138 0 0 0 0 255 0 255 
-349.3911 159.5564 -429.4677 0 0 0 0 255 0 255 
-349.173 155.8475 -429.4089 0 0 0 0 255 0 255 
-348.8871 152.0936 -429.2143 0 0 0 0 255 0 255 
-348.622 148.2115 -429.08 0 0 0 0 255 0 255 
-348.467 144.2806 -428.9345 0 0 0 0 255 0 255 
-348.2258 140.3355 -428.7343 0 0 0 0 255 0 255 
-348.0522 136.4356 -428.6699 0 0 0 0 255 0 255 
-347.886 132.5233 -428.5731 0 0 0 0 255 0 255 
-347.6335 128.5966 -428.4215 0 0 0 0 255 0 255 
-347.4744 124.5941 -428.2901 0 0 0 0 255 0 255 
-347.3293 120.3852 -428.0887 0 0 0 0 255 0 255 
-347.1693 116.2011 -427.9522 0 0 0 0 255 0 255 
-347.0131 112.0109 -427.7996 0 0 0 0 255 0 255 
-346.8381 107.8517 -427.728 0 0 0 0 255 0 255 
-346.7568 103.6948 -427.6788 0 0 0 0 255 0 255 
-346.6194 99.50061 -427.4451 0 0 0 0 255 0 255 
-346.4709 95.43281 -427.261 0 0 0 0 255 0 255 
-346.311 91.38366 -427.1255 0 0 0 0 255 0 255 
-346.1361 87.35938 -427.055 0 0 0 0 255 0 255 
-346.0777 83.30037 -426.9094 0 0 0 0 255 0 255 
-346.0079 79.26012 -426.8126 0 0 0 0 255 0 255 
-345.866 75.22343 -426.6139 0 0 0 0 255 0 255 
-345.8022 71.31341 -426.5391 0 0 0 0 255 0 255 
-345.7496 67.38484 -426.4155 0 0 0 0 255 0 255 
-345.6031 63.45364 -426.2696 0 0 0 0 255 0 255 
-345.5356 59.55014 -426.2111 0 0 0 0 255 0 255 
-345.4831 55.62187 -426.0875 0 0 0 0 255 0 255 
-345.4474 51.70644 -425.9004 0 0 0 0 255 0 255 
-345.3826 48.0038 -425.8816 0 0 0 0 255 0 255 
-345.4563 44.22957 -425.69 0 0 0 0 255 0 255 
-345.4028 40.50851 -425.6224 0 0 0 0 255 0 255 
-345.3456 36.79381 -425.5711 0 0 0 0 255 0 255 
-345.3031 33.05432 -425.4547 0 0 0 0 255 0 255 
-345.3509 29.32431 -425.377 0 0 0 0 255 0 255 
-345.3871 25.29186 -425.2889 0 0 0 0 255 0 255 
-345.3484 21.14334 -425.0782 0 0 0 0 255 0 255 
-345.3708 17.0543 -425.0365 0 0 0 0 255 0 255 
-345.4077 12.94056 -424.9296 0 0 0 0 255 0 255 
-345.4482 8.820802 -424.8063 0 0 0 0 255 0 255 
-345.4816 4.71373 -424.7156 0 0 0 0 255 0 255 
-345.4308 0.5835165 -424.553 0 0 0 0 255 0 255 
-345.4553 -3.512644 -424.4938 0 0 0 0 255 0 255 
-345.6058 -7.6611 -424.3101 0 0 0 0 255 0 255 
-345.7173 -11.74065 -424.3058 0 0 0 0 255 0 255 
-345.756 -15.86096 -424.1812 0 0 0 0 255 0 255 
-345.6973 -19.97855 -424.0507 0 0 0 0 255 0 255 
-345.8375 -23.93612 -423.974 0 0 0 0 255 0 255 
-345.914 -27.6937 -423.8235 0 0 0 0 255 0 255 
-345.9732 -31.41991 -423.7546 0 0 0 0 255 0 255 
-346.0358 -35.15215 -423.6694 0 0 0 0 255 0 255 
-346.1855 -38.86775 -423.6391 0 0 0 0 255 0 255 
-346.255 -42.61204 -423.5211 0 0 0 0 255 0 255 
-346.4251 -46.36457 -423.3927 0 0 0 0 255 0 255 
-346.4575 -50.44083 -423.3824 0 0 0 0 255 0 255 
-346.5202 -54.57315 -423.2249 0 0 0 0 255 0 255 
-346.5662 -58.67412 -423.1491 0 0 0 0 255 0 255 
-346.7061 -62.77069 -423.0956 0 0 0 0 255 0 255 
-346.7554 -66.87758 -423.0035 0 0 0 0 255 0 255 
-346.7141 -70.99492 -422.8727 0 0 0 0 255 0 255 
-346.8879 -74.93539 -422.8611 0 0 0 0 255 0 255 
-347.018 -78.87462 -422.7531 0 0 0 0 255 0 255 
-347.1281 -82.77628 -422.7434 0 0 0 0 255 0 255 
-347.1742 -86.73878 -422.5639 0 0 0 0 255 0 255 
-347.2674 -90.60912 -422.6363 0 0 0 0 255 0 255 
-347.3337 -94.60933 -422.3584 0 0 0 0 255 0 255 
-347.4655 -98.55058 -422.2461 0 0 0 0 255 0 255 
-347.637 -102.4881 -422.1486 0 0 0 0 255 0 255 
-347.8889 -106.3959 -422.1389 0 0 0 0 255 0 255 
-348.0569 -110.3272 -422.0578 0 0 0 0 255 0 255 
-348.3088 -114.235 -422.0481 0 0 0 0 255 0 255 
-348.5777 -118.1741 -421.9565 0 0 0 0 255 0 255 
-348.7473 -122.1247 -421.8924 0 0 0 0 255 0 255 
-349.034 -126.1784 -421.8367 0 0 0 0 255 0 255 
-349.3242 -130.2384 -421.7647 0 0 0 0 255 0 255 
-349.6348 -134.3357 -421.5947 0 0 0 0 255 0 255 
-349.9078 -138.3644 -421.6043 0 0 0 0 255 0 255 
-350.1041 -142.4294 -421.5101 0 0 0 0 255 0 255 
-350.3942 -146.4892 -421.4382 0 0 0 0 255 0 255 
-350.7754 -150.4306 -421.399 0 0 0 0 255 0 255 
-351.0422 -154.3278 -421.4351 0 0 0 0 255 0 255 
-351.42 -158.2508 -421.4116 0 0 0 0 255 0 255 
-351.7005 -162.1728 -421.3823 0 0 0 0 255 0 255 
-352.0851 -166.1081 -421.3262 0 0 0 0 255 0 255 
-352.4698 -170.0433 -421.2701 0 0 0 0 255 0 255 
-352.8599 -174.091 -421.1785 0 0 0 0 255 0 255 
-353.2109 -178.2203 -421.2621 0 0 0 0 255 0 255 
-353.5055 -182.4238 -421.1438 0 0 0 0 255 0 255 
-353.9707 -186.5846 -421.1516 0 0 0 0 255 0 255 
-354.4394 -190.7514 -421.143 0 0 0 0 255 0 255 
-354.8108 -194.9176 -421.1286 0 0 0 0 255 0 255 
-355.1888 -198.9758 -421.0522 0 0 0 0 255 0 255 
-355.6447 -202.7182 -421.0057 0 0 0 0 255 0 255 
-356.0067 -206.4663 -420.9371 0 0 0 0 255 0 255 
-356.4689 -210.2207 -420.858 0 0 0 0 255 0 255 
-356.8175 -213.9436 -420.8546 0 0 0 0 255 0 255 
-357.2599 -217.6602 -420.8734 0 0 0 0 255 0 255 
-357.7023 -221.3767 -420.8922 0 0 0 0 255 0 255 
-358.279 -225.5199 -420.8622 0 0 0 0 255 0 255 
-358.768 -229.7206 -420.793 0 0 0 0 255 0 255 
-359.1568 -233.9148 -420.7344 0 0 0 0 255 0 255 
-359.6489 -238.1213 -420.649 0 0 0 0 255 0 255 
-360.2249 -242.3026 -420.6346 0 0 0 0 255 0 255 
-360.7198 -246.5149 -420.5328 0 0 0 0 255 0 255 
-361.2154 -250.5011 -420.5877 0 0 0 0 255 0 255 
-361.8214 -254.4569 -420.6182 0 0 0 0 255 0 255 
-362.3338 -258.4189 -420.6266 0 0 0 0 255 0 255 
-362.7681 -262.4184 -420.5315 0 0 0 0 255 0 255 
-363.1992 -266.4115 -420.4526 0 0 0 0 255 0 255 
-363.6332 -270.4107 -420.3575 0 0 0 0 255 0 255 
-364.1218 -274.38 -420.2807 0 0 0 0 255 0 255 
-364.6738 -278.2672 -420.3289 0 0 0 0 255 0 255 
-365.2319 -282.1666 -420.3445 0 0 0 0 255 0 255 
-365.8022 -286.0909 -420.2951 0 0 0 0 255 0 255 
-366.2637 -289.9907 -420.305 0 0 0 0 255 0 255 
-366.8247 -293.8961 -420.3043 0 0 0 0 255 0 255 
-367.3979 -297.8262 -420.2387 0 0 0 0 255 0 255 
-367.9821 -301.9555 -420.2736 0 0 0 0 255 0 255 
-368.6042 -306.16 -420.1816 0 0 0 0 255 0 255 
-369.2111 -310.3334 -420.1707 0 0 0 0 255 0 255 
-370.0045 -314.4925 -420.2036 0 0 0 0 255 0 255 
-370.6144 -318.6719 -420.1765 0 0 0 0 255 0 255 
-371.2243 -322.8513 -420.1495 0 0 0 0 255 0 255 
-371.9144 -326.7592 -420.1323 0 0 0 0 255 0 255 
-372.6003 -330.5993 -420.116 0 0 0 0 255 0 255 
-373.2771 -334.4208 -420.1482 0 0 0 0 255 0 255 
-373.9539 -338.2422 -420.1804 0 0 0 0 255 0 255 
-374.6546 -342.1128 -420.0836 0 0 0 0 255 0 255 
-385.6204 -395.3171 -420.2907 0 0 0 0 255 0 255 
-386.1046 -398.4033 -420.4045 0 0 0 0 255 0 255 
-386.6841 -401.4875 -420.524 0 0 0 0 255 0 255 
-387.1929 -404.6289 -420.494 0 0 0 0 255 0 255 
-387.6174 -407.7967 -420.3945 0 0 0 0 255 0 255 
-388.1262 -410.938 -420.3646 0 0 0 0 255 0 255 
-198.4801 -786.6295 -521.0358 0 0 0 0 255 0 255 
-197.7914 -786.4937 -521.1055 0 0 0 0 255 0 255 
-197.1649 -786.1094 -521.326 0 0 0 0 255 0 255 
-196.5383 -785.7854 -521.6802 0 0 0 0 255 0 255 
-195.63 -785.4365 -522.1744 0 0 0 0 255 0 255 
-194.4567 -785.2313 -522.2385 0 0 0 0 255 0 255 
-193.2576 -785.14 -522.2618 0 0 0 0 255 0 255 
-192.0334 -785.1019 -522.11 0 0 0 0 255 0 255 
-190.8227 -784.9767 -521.9116 0 0 0 0 255 0 255 
-189.625 -784.8248 -521.8004 0 0 0 0 255 0 255 
-187.9144 -784.5638 -521.7446 0 0 0 0 255 0 255 
-184.9429 -784.3221 -521.6945 0 0 0 0 255 0 255 
-181.9685 -784.0308 -521.475 0 0 0 0 255 0 255 
-178.9855 -783.7612 -521.1851 0 0 0 0 255 0 255 
-175.988 -783.5839 -520.9237 0 0 0 0 255 0 255 
-173.0262 -783.2719 -520.7709 0 0 0 0 255 0 255 
-170.0265 -783.2144 -520.7734 0 0 0 0 255 0 255 
-166.2203 -782.9498 -520.7188 0 0 0 0 255 0 255 
-162.395 -782.7334 -520.506 0 0 0 0 255 0 255 
-158.5529 -782.6144 -520.303 0 0 0 0 255 0 255 
-154.6974 -782.5325 -519.9772 0 0 0 0 255 0 255 
-150.8749 -782.3215 -519.7415 0 0 0 0 255 0 255 
-147.0642 -782.0839 -519.59 0 0 0 0 255 0 255 
-143.1417 -781.7448 -519.588 0 0 0 0 255 0 255 
-139.0876 -781.308 -519.396 0 0 0 0 255 0 255 
-135.0281 -780.9364 -519.3167 0 0 0 0 255 0 255 
-130.938 -780.699 -519.1256 0 0 0 0 255 0 255 
-126.8679 -780.3647 -518.9208 0 0 0 0 255 0 255 
-122.7809 -780.1271 -518.725 0 0 0 0 255 0 255 
-118.6857 -779.9495 -518.6255 0 0 0 0 255 0 255 
-114.6057 -779.6498 -518.4661 0 0 0 0 255 0 255 
-110.522 -779.3658 -518.2527 0 0 0 0 255 0 255 
-106.4475 -779.0219 -517.9056 0 0 0 0 255 0 255 
-102.3737 -778.7166 -517.7562 0 0 0 0 255 0 255 
-98.32581 -778.2938 -517.6621 0 0 0 0 255 0 255 
-94.28181 -777.8606 -517.6 0 0 0 0 255 0 255 
-90.4052 -777.4265 -517.4763 0 0 0 0 255 0 255 
-86.52871 -777.0916 -517.3453 0 0 0 0 255 0 255 
-82.66273 -776.6968 -517.0811 0 0 0 0 255 0 255 
-78.78235 -776.388 -516.86 0 0 0 0 255 0 255 
-74.90476 -776.0738 -516.6541 0 0 0 0 255 0 255 
-71.03946 -775.7127 -516.6002 0 0 0 0 255 0 255 
-67.04117 -775.3076 -516.4525 0 0 0 0 255 0 255 
-62.98823 -774.8784 -516.2802 0 0 0 0 255 0 255 
-58.93476 -774.4592 -516.0714 0 0 0 0 255 0 255 
-54.8841 -774.0348 -515.8774 0 0 0 0 255 0 255 
-49.91793 -778.2576 -518.8628 0 0 0 0 255 0 255 
-46.24284 -775.9245 -517.3063 0 0 0 0 255 0 255 
-42.63523 -773.3993 -515.7206 0 0 0 0 255 0 255 
-38.81868 -772.0901 -515.3027 0 0 0 0 255 0 255 
-34.84416 -771.583 -515.1816 0 0 0 0 255 0 255 
-30.86425 -771.1215 -514.9052 0 0 0 0 255 0 255 
-25.49488 -778.1489 -509.9385 0 0 0 0 255 0 255 
-22.90481 -770.1974 -514.6795 0 0 0 0 255 0 255 
-18.97888 -769.4639 -514.6329 0 0 0 0 255 0 255 
-14.85326 -769.0334 -514.4206 0 0 0 0 255 0 255 
-10.75811 -768.4222 -514.4693 0 0 0 0 255 0 255 
-6.669363 -767.8508 -514.0472 0 0 0 0 255 0 255 
-2.592614 -767.1792 -513.9623 0 0 0 0 255 0 255 
1.524535 -766.7432 -513.7427 0 0 0 0 255 0 255 
5.53785 -765.7406 -513.7757 0 0 0 0 255 0 255 
9.513779 -765.1048 -513.6284 0 0 0 0 255 0 255 
13.46472 -764.4929 -513.4144 0 0 0 0 255 0 255 
17.3939 -763.7706 -513.2394 0 0 0 0 255 0 255 
21.34193 -763.1786 -512.9541 0 0 0 0 255 0 255 
25.26519 -762.3865 -513.0113 0 0 0 0 255 0 255 
29.20802 -761.7296 -512.9412 0 0 0 0 255 0 255 
32.95761 -761.0443 -512.9432 0 0 0 0 255 0 255 
36.63974 -760.3168 -512.7495 0 0 0 0 255 0 255 
40.33952 -759.6897 -512.5468 0 0 0 0 255 0 255 
44.03757 -759.0724 -512.3088 0 0 0 0 255 0 255 
47.73394 -758.4452 -512.1028 0 0 0 0 255 0 255 
51.43016 -757.7479 -512.1306 0 0 0 0 255 0 255 
55.24483 -756.9585 -511.9316 0 0 0 0 255 0 255 
59.30947 -756.1962 -511.9897 0 0 0 0 255 0 255 
63.35081 -755.4088 -511.8006 0 0 0 0 255 0 255 
67.40965 -754.7165 -511.6186 0 0 0 0 255 0 255 
71.44913 -753.8991 -511.526 0 0 0 0 255 0 255 
75.46671 -753.0017 -511.3716 0 0 0 0 255 0 255 
79.54881 -752.2415 -511.3359 0 0 0 0 255 0 255 
83.7073 -751.3248 -511.1947 0 0 0 0 255 0 255 
87.86501 -750.3982 -511.0848 0 0 0 0 255 0 255 
92.01792 -749.5013 -510.8719 0 0 0 0 255 0 255 
96.17104 -748.5847 -510.7239 0 0 0 0 255 0 255 
100.3249 -747.648 -510.6407 0 0 0 0 255 0 255 
104.3652 -746.7206 -510.6091 0 0 0 0 255 0 255 
107.9245 -745.8242 -510.4816 0 0 0 0 255 0 255 
111.4766 -744.9677 -510.2185 0 0 0 0 255 0 255 
115.0534 -744.1612 -510.1132 0 0 0 0 255 0 255 
118.6281 -743.3597 -509.9894 0 0 0 0 255 0 255 
122.1786 -742.4833 -509.7887 0 0 0 0 255 0 255 
125.7327 -741.5771 -509.6866 0 0 0 0 255 0 255 
128.9136 -740.8333 -509.5614 0 0 0 0 255 0 255 
131.9375 -740.1398 -509.4903 0 0 0 0 255 0 255 
134.9401 -739.3564 -509.393 0 0 0 0 255 0 255 
137.9389 -738.5881 -509.2447 0 0 0 0 255 0 255 
140.9377 -737.8148 -509.1121 0 0 0 0 255 0 255 
143.9386 -737.0263 -509.0284 0 0 0 0 255 0 255 
146.9334 -736.2632 -508.8604 0 0 0 0 255 0 255 
148.4008 -735.7981 -508.8766 0 0 0 0 255 0 255 
149.713 -735.4441 -508.9064 0 0 0 0 255 0 255 
151.0459 -735.18 -508.9608 0 0 0 0 255 0 255 
152.3637 -734.8007 -509.0736 0 0 0 0 255 0 255 
153.7048 -734.5015 -509.2447 0 0 0 0 255 0 255 
155.0275 -734.1022 -509.4245 0 0 0 0 255 0 255 
156.3636 -733.7917 -509.5482 0 0 0 0 255 0 255 
157.6574 -733.3885 -509.4789 0 0 0 0 255 0 255 
158.9487 -732.9952 -509.3758 0 0 0 0 255 0 255 
